ply
format ascii 1.0
element vertex 71
property float x
property float y
property float z
end_header
-124.165474 141.139725 308.233826
-122.067352 152.027786 313.889435
-127.212021 167.370621 335.968719
-94.145668 154.761215 307.673462
-59.799122 12.357862 200.722427
-59.799122 12.357862 200.722427
-70.402153 14.401886 240.434906
-70.402153 14.401886 240.434906
-70.122017 22.963684 240.216721
-65.609909 116.574409 226.979263
-66.025780 20.609467 230.513397
-62.558857 11.813426 222.972336
-66.123688 12.484619 237.077682
-61.152287 107.301361 225.010574
-62.684479 11.871788 232.135849
-61.656048 11.781579 233.486969
-61.656048 11.781579 233.486969
-62.835705 13.200798 238.466568
-63.043434 23.350002 240.365112
-63.043434 23.350002 240.365112
-14.242286 22.067854 56.630383
-55.003189 13.793001 233.523254
-43.790359 88.677704 221.165924
-38.478024 105.973221 213.958588
-35.001297 108.834625 223.347702
-27.211048 49.778099 282.201050
-22.634878 132.424713 293.216705
-19.863928 138.532654 297.404816
-19.712978 134.010544 299.779388
-19.373104 135.908371 295.917023
-18.339025 132.019608 301.016174
-17.003983 132.156281 305.518433
-14.566449 126.098991 281.246155
-11.293304 119.287010 291.003662
-10.615732 116.848282 289.311218
-8.498554 107.743156 282.555511
-6.431848 96.888359 274.905518
-2.947554 118.823418 291.703949
2.146954 91.497559 289.448517
2.151106 107.402138 277.084045
8.378156 122.209183 299.778534
10.180180 116.898979 290.761444
3.615497 18.323786 50.829666
19.996912 88.565575 222.603790
19.996912 88.565575 222.603790
31.288111 130.912598 346.129608
31.288111 130.912598 346.129608
32.808937 138.268097 344.204865
34.608425 138.088791 346.728302
34.608425 138.088791 346.728302
36.470730 139.180237 346.406921
37.027596 113.283592 325.056763
41.173702 140.290817 359.455505
47.310287 151.466888 376.721313
-63.901752 -195.140457 -490.113708
-63.901752 -195.140457 -490.113708
48.659565 152.139008 372.700562
53.739994 158.443726 394.738007
56.948589 159.042084 407.461243
55.731770 154.484848 398.238251
50.402950 128.484680 359.238281
50.402950 128.484680 359.238281
-36.576931 -102.745193 -257.989899
62.448151 169.953033 422.515747
62.448151 169.953033 422.515747
55.489349 140.437454 357.179871
63.738255 131.586914 388.886505
79.424988 17.215950 320.440277
81.054886 4.511535 321.803558
87.813896 17.732515 331.566559
99.192154 6.999810 337.408905
