ply
format ascii 1.0
element vertex 225
property float x
property float y
property float z
end_header
0.490624 98.106003 271.403503
-6.511549 98.435402 289.486298
45.165543 145.627014 362.054749
-4.940754 91.702362 271.397980
-6.104590 91.312935 271.390625
7.972779 118.102425 289.512085
-64.041206 12.025313 241.209198
-52.318218 10.592348 200.292511
28.304399 133.903244 334.099335
-63.330189 12.334983 238.528183
-16.966356 118.657494 271.379974
-3.201081 107.954903 289.491486
-2.787281 118.093643 289.490570
34.995300 134.158768 334.138855
0.937175 111.889320 289.498047
31.650772 134.154816 334.128967
53.793636 158.881088 395.006775
-16.855757 130.909668 289.463593
-18.097359 131.119049 289.470673
-17.375017 147.521545 322.102600
7.765677 120.441078 297.436554
0.826910 80.650803 255.439041
31.603273 98.392632 310.226898
-18.924423 129.666519 289.459503
31.648365 128.175507 334.107727
5.903290 113.753647 289.505096
-22.492973 137.821594 310.140289
-11.147681 96.936203 271.386902
74.753059 194.617966 482.992889
58.879299 154.373199 395.030670
8.985749 123.435387 310.193817
-20.165590 127.596519 289.456909
140.578079 201.959427 621.352966
169.244034 235.695724 725.146912
27.611328 118.344948 310.218597
27.349096 129.126846 334.097748
-20.993587 126.979279 289.466278
-64.522484 13.462812 255.397446
-4.552830 100.624748 271.393860
-66.109703 12.714850 241.208176
57.749046 156.065033 395.025024
-6.880468 91.507126 271.392853
-11.535703 95.579567 271.391479
-52.505726 5.512877 228.519928
-1.061233 93.061775 271.401245
266.776825 386.097839 1089.629028
50.666210 13.912702 310.197632
294.411316 440.858612 1213.784302
27.878428 128.923264 329.064758
29.007687 130.617981 329.068115
7.555073 128.611115 328.990906
66.646217 175.067764 434.629120
0.200285 105.472557 301.558990
-69.222488 12.152617 251.254913
-63.968243 12.369297 241.192505
58.932472 158.895050 402.334442
-1.247619 101.655495 278.358887
-19.891981 151.256714 335.027161
29.005095 125.245270 329.043945
36.934933 95.920860 301.617889
-18.937542 136.237015 301.530823
303.055176 434.365234 1215.024536
25.617710 128.063797 329.034668
0.200285 117.369987 301.559021
-17.480909 121.938370 278.337646
128.954819 185.803040 572.150879
148.543518 207.703796 639.590820
43.086475 116.673355 361.989075
60.321812 160.068115 402.389282
2.094892 107.625740 278.365265
0.615074 93.065666 258.480042
26.746792 126.936073 329.037506
-4.589967 94.252457 278.354919
400.011475 743.557861 1830.303223
52.157135 149.527054 387.883301
-3.157535 113.352379 278.357269
-4.112488 104.279739 278.355774
58.942127 162.083557 402.394073
8.923382 128.778870 317.443665
47.885872 143.135208 356.113892
-11.751441 98.541580 278.327545
-10.025812 92.174118 258.470001
0.184878 98.791656 278.361908
-11.274343 99.978691 278.345276
1.617381 89.003181 278.364136
9.597894 106.758331 261.611603
54.726875 166.801956 420.957550
-17.404242 123.618317 274.122772
-59.601429 12.689857 231.928619
-2.169225 101.337273 274.139648
-69.226845 12.920631 251.272339
354.807678 574.011292 1523.041748
31.152309 128.026123 335.141510
394.045258 623.570740 1662.114502
52.777119 151.871658 393.498810
-16.618124 125.560280 289.944183
51.075741 142.977417 369.464844
190.871979 306.787903 819.376770
1.780983 86.384926 274.146729
32.529400 106.287392 335.119049
61.111961 160.348099 411.436981
26.322233 131.470932 335.130035
65.806900 169.562073 431.092285
-0.523912 110.540619 301.558044
400.355927 742.255493 1831.855347
134.471634 196.537506 603.982727
63.410694 167.282272 421.071777
14.329416 172.132812 430.863251
0.652351 98.517891 274.145447
-11.197588 98.793282 274.128998
8.166798 122.339485 301.570374
-3.297795 111.211716 274.140106
-4.426372 92.589294 274.137848
27.875006 131.900238 329.031769
31.155914 133.904190 335.173828
0.088028 97.059029 274.144440
58.937706 161.370270 402.366791
50.584789 150.672714 377.146973
34.602547 134.238129 335.149658
0.096830 105.265556 301.558777
-8.940578 99.923103 274.132538
7.695003 130.763245 335.084198
253.089127 404.040497 1084.496094
-58.976650 12.637770 228.397949
1.699036 99.940460 279.224091
-16.231743 120.477051 279.183899
-0.953878 92.427689 251.297089
-5.198010 105.109062 279.215424
52.050934 154.882462 386.883392
25.154100 88.919823 279.270569
45.651772 114.342033 359.114136
54.552010 141.914017 359.290894
62.596764 163.984650 419.105591
25.970051 125.644501 314.179016
37.671646 144.070343 359.140228
29.074877 125.646812 314.184784
42.102303 116.112930 359.104218
8.895363 124.853867 314.142303
42.102341 114.338974 359.104523
233.714859 381.684296 1012.177917
25.196821 121.388496 314.207092
29.074944 120.990639 314.185394
-11.405003 100.968483 279.208618
333.708344 618.835693 1526.840088
-7.399479 116.305298 314.107239
-1126.030884 -1915.840332 -4724.287598
-67.146202 28.759089 241.548996
5.837383 109.251823 279.227295
9.976344 113.741013 279.239563
28.298956 102.365143 314.186035
-4.508350 94.418633 279.211914
-64.899818 11.550996 232.644775
-58.004856 11.551179 232.648453
27.393436 96.894646 299.211578
50.680260 124.197205 380.904907
50.343197 162.254471 405.472382
37.141090 139.458893 349.150513
-3.648026 108.405342 299.159180
28.280586 94.234688 299.213959
-1.874565 105.303223 299.159241
26.506470 95.120621 299.210876
3.015431 82.443520 261.774567
38.925976 95.127220 299.231659
114.793175 173.616241 524.128113
30.929607 135.311813 349.131561
1.527186 86.500900 273.154816
157.266968 225.368912 699.132141
-10.741467 106.180519 299.132629
65.700760 164.912109 419.095825
-0.088359 90.976952 261.769409
-6.325041 128.539841 349.013245
3.446211 95.994827 299.171295
-11.628365 108.400497 299.145782
8.767771 120.390556 299.190491
-68.203369 31.599089 255.339355
-3.648025 120.819817 299.159363
957.867249 1740.479126 4314.494629
-64.899918 27.411442 232.645203
-0.270592 101.343483 290.854797
-54.513836 11.218218 218.130188
50.621078 140.147217 349.311340
43.142616 139.662369 349.143738
35.698090 139.066208 349.199310
29.478251 139.647385 349.106201
-56.057583 27.119404 218.095276
-2.339692 107.549988 290.852661
1.798609 102.898224 290.858948
8.006642 117.388184 290.873657
-60.518360 27.446808 249.247086
-6.477813 110.133133 290.840179
-11.650002 107.024887 290.827332
-5.443297 93.065323 290.849243
-9.366865 86.404198 256.622192
-59.879555 12.722931 242.359329
-69.189018 12.722800 242.356873
-9.895921 73.781860 234.545273
-58.832497 26.682085 242.301270
-7.631059 79.248917 259.674042
-7.305409 110.237083 290.844086
-11.029517 108.993561 290.838470
1.538648 102.836258 323.177155
5.285709 95.746841 300.897736
-2.339707 107.756981 290.851440
31.185631 94.117783 290.903229
49.869022 130.895676 363.776672
29.675447 144.836029 363.690430
-69.171417 25.646568 242.289185
23.734467 97.838730 290.891113
-69.600121 12.411967 242.346664
-49.726608 10.343683 201.962875
-58.429558 18.618761 242.351166
-69.600159 21.101002 242.346802
-69.600174 24.824881 242.346878
-58.429588 26.066648 242.351318
-62.153217 29.790432 242.350052
-7.536154 73.862724 242.365143
34.040855 95.462234 303.052765
-5.053375 77.588310 242.369461
-2.570508 77.589920 242.374496
23.172897 97.006317 303.027222
-9.420046 101.637428 302.952026
23.734467 97.838730 290.891113
-1.661297 103.195251 302.969879
-1.661296 110.954353 302.969971
69.706055 168.847610 454.693085
