ply
format ascii 1.0
element vertex 203
property float x
property float y
property float z
end_header
75.076469 3.692787 311.959045
72.988503 5.111133 311.468567
77.322029 9.252746 309.583099
-63.927757 10.572285 236.993561
-60.855789 10.460031 235.618256
-61.736938 11.706823 233.786942
-55.130337 22.088888 233.095139
-78.985062 31.836544 284.056702
3.832280 85.871002 270.644073
-8.603374 87.055710 273.427063
-3.030576 84.957771 265.363983
27.629786 99.053749 309.746399
99.552147 150.865799 462.069458
716.946350 844.416382 2563.467529
-4.275323 92.175621 272.161407
51.271042 123.869957 363.526703
1462.321411 1779.064087 5265.710449
-0.582790 87.939896 253.757004
413.857300 570.789429 1616.716431
3.213170 100.788734 278.748169
-3.167282 113.984863 313.561188
9.799083 130.794067 361.093658
-3.365629 106.660156 293.102325
27.639280 121.510490 332.846191
-10.269353 99.910446 271.195221
28.184944 109.533752 297.356689
-2.012639 106.467201 287.775360
-6.492982 111.742805 300.975769
51.895782 135.300934 365.267975
45.357288 135.694931 360.096344
48.837360 137.912643 366.267914
45.017506 128.612564 340.850494
25.638735 131.220810 343.120728
48.561062 136.380508 356.774261
29.236780 128.343536 334.162537
2.753403 112.450485 290.386169
5.551311 106.858833 274.961151
25.517550 129.943573 331.308411
-4.549450 116.136787 293.184662
61.869186 157.983749 398.912628
28.254150 133.921509 335.236969
32.486240 137.384964 343.246307
36.541016 139.140915 347.517456
10.723966 119.915619 298.284851
46.453312 149.117874 372.414948
53.133926 156.790192 391.835358
61.089809 166.018845 414.032074
34.268475 139.906723 344.141754
55.511650 160.105591 393.438293
-17.956093 129.895248 295.130859
-19.921003 131.990158 295.729706
-17.797749 133.436340 295.917389
-16.297277 137.511841 299.845367
-12.760798 130.183762 281.981293
-11.630967 134.648209 287.245056
-12.135307 133.899261 271.844360
3.170722 0.846811 48.438614
80.499474 5.807438 324.573273
48.774635 5.204301 283.989563
50.541840 13.623265 294.585388
-66.273109 12.467820 236.170425
-60.225208 13.584240 233.345993
-58.350391 15.973408 235.053619
-56.447094 20.031830 233.075638
-59.353970 28.287735 237.433487
-68.391983 30.449390 252.585480
-5.561669 79.137360 259.341431
-1.694033 83.310463 267.878479
29.059771 83.047508 264.232758
7.664859 104.410622 326.774506
-4.252517 86.331314 268.194794
27.168209 102.505379 319.087646
47.225037 109.230194 337.312042
138.045670 185.047607 573.714417
28.141659 88.244438 270.643463
41.686176 109.719109 328.118896
126.166656 179.260803 537.084167
-9.304636 93.090561 275.879791
28.793001 106.921364 311.058746
-12.160793 94.281860 270.732422
312.724640 401.949860 1174.411377
2.445346 101.515221 286.474945
-2.605739 101.065430 282.495972
45.976631 125.731247 351.528564
-7.339238 102.667290 285.737091
-0.652735 104.819443 286.374023
2.392405 110.032448 296.054565
61.997185 153.373779 410.768463
-6.061952 108.419846 286.067993
-1.168696 111.694984 293.540894
62.495464 146.187515 387.110382
91.859802 207.355560 526.989258
5.370171 121.547638 305.280151
-3.499726 118.427361 292.941956
8.610394 122.808548 304.247955
13.620146 118.843285 292.456329
-12.631076 117.543594 281.988342
-10.829425 121.548996 275.686493
-13.959625 130.230499 289.481537
-20.188032 139.122726 301.906921
81.538750 17.054514 328.018219
-66.149567 17.496988 234.126404
-4.760816 113.690880 290.224823
-12.678571 131.388000 285.066803
17.390989 4.732835 255.312195
49.138130 5.462441 283.347290
69.552315 6.861777 288.676208
51.546265 13.345100 295.759216
-66.798630 12.766529 235.359955
-56.949120 12.848219 233.691101
69.200226 17.065340 292.882080
-60.199821 14.183714 232.822815
-64.664337 15.442851 232.241058
-58.511551 16.100868 235.619141
-56.612110 19.838455 232.849075
-68.598709 21.127762 242.081650
-59.862461 28.177801 238.289337
-68.792831 30.759928 255.736053
-1.349509 82.953018 267.049622
33.303440 93.334099 298.432648
8.584995 98.780243 307.651581
-4.975801 88.180641 272.768280
26.735546 105.162094 326.002563
-12.642622 87.300766 268.635193
47.369282 107.581856 330.062103
30.851650 96.396484 294.416656
26.767920 103.847580 310.842041
100.749344 165.699524 487.045258
-12.050295 90.468910 259.453644
8.787640 99.455444 283.112885
22.926493 110.518150 314.111633
-7.917938 102.585052 289.413300
-3.386470 101.313293 284.319275
54.870857 129.019180 360.023468
73.274857 154.410126 428.978302
-0.816707 104.147980 284.140625
11.259365 106.700768 289.512726
30.095755 114.732971 309.209137
71.260063 149.262177 403.257843
2.926069 111.429337 298.262451
38.987377 128.841980 344.500122
-9.422424 106.780685 283.640289
14.373469 92.716431 245.389786
-6.900558 109.567932 288.062988
110.867737 247.896866 629.133423
28.642176 133.317581 335.067902
36.302971 139.325317 350.507904
46.664421 147.046738 369.422180
8.557683 122.064484 303.738342
-3.627637 117.651878 292.021271
40.723991 144.421982 353.272095
-12.679512 118.320206 284.667847
-9.223926 120.690437 286.250671
-17.278549 123.226318 287.470612
-124.087822 141.511154 317.001160
-14.639684 126.165314 282.394562
-33.911633 4.413142 234.715240
9.921021 5.371763 256.685181
19.236998 5.254780 253.088562
42.039097 12.513397 289.712799
51.722004 12.564190 286.535400
0.026402 92.737404 283.003937
23.026068 104.312363 318.469727
49.835350 108.526779 328.071716
21.028343 106.844009 309.224121
4.608462 101.252991 292.296295
-5.851299 99.225517 280.640869
44.248665 127.070038 359.045044
56.218777 126.473351 359.195526
80.056511 153.804260 424.476776
-1.437487 106.730179 290.074646
10.049418 101.973846 277.190002
121.343460 237.209320 626.258423
63.968670 155.600845 400.998627
31.998911 133.209457 337.117340
49.655102 146.578278 370.679901
-3.887262 115.010979 287.889771
8.161337 120.602280 301.568115
60.506329 162.408096 407.288300
-12.529728 116.590500 283.008636
13.699637 120.090073 293.374939
-1.104688 87.597534 283.668915
-8.459906 108.498779 283.992065
-33.609665 6.224695 233.760620
-63.229076 6.896839 240.329422
40.356255 9.514412 290.408447
-53.389893 14.539317 232.289917
-62.279251 17.378464 235.506271
-65.973808 18.480150 237.794434
-58.299084 19.405157 235.499374
-63.036842 27.253286 241.075790
-7.206122 79.605965 258.264374
21.037964 67.618210 214.746506
31.092871 93.115463 293.999176
-12.445765 88.212204 269.255005
-5.437944 87.844505 264.013031
20.239326 104.679756 314.393066
35.577564 107.284050 318.168915
2.531737 100.816521 298.285339
113.724998 235.162933 702.079712
-6.307986 95.978279 276.599060
-11.410577 96.493187 274.482788
39.809235 125.956398 348.652924
